ply
    format ascii 1.0
    element vertex 61634
    property float x
    property float y
    property float z
    property uchar red
    property uchar green
    property uchar blue
    end_header
-0.039062 0.792969 0.085145 206 173 160
-0.035156 0.792969 0.085975 196 160 147
-0.031250 0.792969 0.086615 188 149 138
-0.027344 0.792969 0.087070 190 149 138
-0.023438 0.792969 0.087664 204 164 152
-0.019531 0.792969 0.088189 219 183 169
-0.015625 0.792969 0.088513 227 191 176
-0.011719 0.792969 0.088610 231 192 175
-0.007812 0.792969 0.088507 233 194 177
-0.003906 0.792969 0.088338 230 190 172
0.000000 0.792969 0.088143 223 185 168
0.003906 0.792969 0.087431 221 190 174
0.007812 0.792969 0.085826 214 181 165
0.011719 0.792969 0.083736 177 135 119
0.015625 0.792969 0.081327 104 73 62
0.019531 0.792969 0.079250 101 75 65
0.023438 0.792969 0.077583 150 118 106
0.027344 0.792969 0.075643 131 101 89
0.031250 0.792969 0.073264 98 73 60
0.035156 0.792969 0.070025 104 76 60
0.039062 0.792969 0.065450 104 76 58
0.042969 0.792969 0.060364 111 81 59
0.046875 0.792969 0.055610 161 130 93
0.050781 0.792969 0.049612 195 174 133
0.054688 0.792969 0.040810 190 171 134
0.058594 0.792969 0.029325 173 156 120
0.062500 0.792969 0.017586 158 145 111
0.066406 0.792969 0.010724 205 196 171
0.070312 0.792969 0.006015 213 209 203
-0.109375 0.789062 0.006726 241 240 233
-0.105469 0.789062 0.012080 218 218 201
-0.101562 0.789062 0.016336 166 152 130
-0.097656 0.789062 0.019707 176 153 130
-0.093750 0.789062 0.023554 188 166 140
-0.089844 0.789062 0.026504 155 134 108
-0.085938 0.789062 0.028867 119 97 80
-0.082031 0.789062 0.031501 159 127 105
-0.078125 0.789062 0.034529 170 131 104
-0.074219 0.789062 0.039270 163 125 94
-0.070312 0.789062 0.047475 200 166 135
-0.066406 0.789062 0.056685 222 191 169
-0.062500 0.789062 0.064361 230 199 181
-0.058594 0.789062 0.070324 230 195 178
-0.054688 0.789062 0.074293 215 174 157
-0.050781 0.789062 0.077886 194 155 140
-0.046875 0.789062 0.081158 175 139 125
-0.042969 0.789062 0.083348 164 128 115
-0.039062 0.789062 0.084288 154 119 105
-0.035156 0.789062 0.084752 148 111 98
-0.031250 0.789062 0.085126 143 105 93
-0.027344 0.789062 0.085488 134 97 86
-0.023438 0.789062 0.086278 142 104 93
-0.019531 0.789062 0.087107 176 135 120
-0.015625 0.789062 0.087818 208 165 146
-0.011719 0.789062 0.088224 222 179 159
-0.007812 0.789062 0.088246 228 187 167
-0.003906 0.789062 0.088192 226 186 166
0.000000 0.789062 0.088039 222 183 164
0.003906 0.789062 0.087100 213 178 157
0.007812 0.789062 0.085077 184 146 125
0.011719 0.789062 0.082689 138 103 88
0.015625 0.789062 0.080167 104 82 69
0.019531 0.789062 0.078190 134 111 94
0.023438 0.789062 0.076869 178 153 134
0.027344 0.789062 0.075242 167 140 120
0.031250 0.789062 0.073130 161 130 107
0.035156 0.789062 0.070273 169 137 105
0.039062 0.789062 0.065971 160 132 93
0.042969 0.789062 0.060950 141 109 74
0.046875 0.789062 0.056245 150 114 79
0.050781 0.789062 0.050595 191 164 122
0.054688 0.789062 0.042475 189 167 128
0.058594 0.789062 0.030813 172 151 112
0.062500 0.789062 0.017222 171 151 115
0.066406 0.789062 0.009851 173 156 129
0.070312 0.789062 0.005653 196 191 181
-0.109375 0.785156 0.008311 242 240 232
-0.105469 0.785156 0.012636 204 199 178
-0.101562 0.785156 0.016639 170 154 128
-0.097656 0.785156 0.020423 196 174 149
-0.093750 0.785156 0.023946 185 159 135
-0.089844 0.785156 0.026276 134 112 91
-0.085938 0.785156 0.028374 128 108 87
-0.082031 0.785156 0.030873 177 150 122
-0.078125 0.785156 0.033320 168 133 104
-0.074219 0.785156 0.037760 162 124 95
-0.070312 0.785156 0.046555 208 173 144
-0.066406 0.785156 0.056664 228 196 175
-0.062500 0.785156 0.064569 229 193 178
-0.058594 0.785156 0.070459 215 171 157
-0.054688 0.785156 0.074142 194 149 134
-0.050781 0.785156 0.077559 196 161 144
-0.046875 0.785156 0.080777 205 172 155
-0.042969 0.785156 0.082745 204 169 150
-0.039062 0.785156 0.083243 193 155 134
-0.035156 0.785156 0.083300 186 145 123
-0.031250 0.785156 0.083417 188 144 122
-0.027344 0.785156 0.083708 178 135 112
-0.023438 0.785156 0.084643 169 128 107
-0.019531 0.785156 0.085647 178 137 117
-0.015625 0.785156 0.086697 198 152 130
-0.011719 0.785156 0.087434 216 168 147
-0.007812 0.785156 0.087641 222 180 160
-0.003906 0.785156 0.087722 221 182 162
0.000000 0.785156 0.087516 218 178 159
0.003906 0.785156 0.086238 198 158 136
0.007812 0.785156 0.083693 161 124 103
0.011719 0.785156 0.081072 151 120 99
0.015625 0.785156 0.078626 166 139 116
0.019531 0.785156 0.076660 186 161 138
0.023438 0.785156 0.075409 180 153 133
0.027344 0.785156 0.073920 153 124 107
0.031250 0.785156 0.071947 165 130 108
0.035156 0.785156 0.069345 176 139 108
0.039062 0.785156 0.065605 178 143 103
0.042969 0.785156 0.061064 166 130 90
0.046875 0.785156 0.056471 148 109 75
0.050781 0.785156 0.051179 184 153 113
0.054688 0.785156 0.043836 187 164 123
0.058594 0.785156 0.032448 164 144 102
0.062500 0.785156 0.017140 182 161 120
0.066406 0.785156 0.008709 165 143 112
0.070312 0.785156 0.005023 211 204 183
-0.109375 0.781250 0.009101 231 224 213
-0.105469 0.781250 0.013030 196 181 159
-0.101562 0.781250 0.017214 180 158 132
-0.097656 0.781250 0.021054 190 166 141
-0.093750 0.781250 0.023995 159 130 107
-0.089844 0.781250 0.026058 130 104 85
-0.085938 0.781250 0.028218 157 131 110
-0.082031 0.781250 0.030271 180 155 128
-0.078125 0.781250 0.031737 150 116 88
-0.074219 0.781250 0.035949 159 117 89
-0.070312 0.781250 0.045616 210 172 145
-0.066406 0.781250 0.056629 227 194 173
-0.062500 0.781250 0.064704 228 193 176
-0.058594 0.781250 0.070570 221 184 169
-0.054688 0.781250 0.074077 221 188 173
-0.050781 0.781250 0.077286 230 204 188
-0.046875 0.781250 0.080259 227 199 181
-0.042969 0.781250 0.081845 213 179 158
-0.039062 0.781250 0.081854 196 157 136
-0.035156 0.781250 0.081531 182 138 117
-0.031250 0.781250 0.081364 185 140 115
-0.027344 0.781250 0.081636 192 146 120
-0.023438 0.781250 0.082880 197 155 129
-0.019531 0.781250 0.084207 201 164 139
-0.015625 0.781250 0.085668 205 162 139
-0.011719 0.781250 0.086715 219 173 152
-0.007812 0.781250 0.087086 226 187 166
-0.003906 0.781250 0.087248 223 189 168
0.000000 0.781250 0.086905 214 177 156
0.003906 0.781250 0.085243 179 136 113
0.007812 0.781250 0.082063 148 109 88
0.011719 0.781250 0.079090 150 115 94
0.015625 0.781250 0.076564 152 123 102
0.019531 0.781250 0.074494 167 137 117
0.023438 0.781250 0.073188 162 126 111
0.027344 0.781250 0.071762 128 96 83
0.031250 0.781250 0.069803 120 90 75
0.035156 0.781250 0.067254 115 81 64
0.039062 0.781250 0.064028 136 97 68
0.042969 0.781250 0.060363 157 113 77
0.046875 0.781250 0.056351 141 97 66
0.050781 0.781250 0.051441 177 140 102
0.054688 0.781250 0.044672 190 168 125
0.058594 0.781250 0.033672 159 142 97
0.062500 0.781250 0.017146 184 165 119
0.066406 0.781250 0.007146 163 143 106
0.070312 0.781250 0.003673 182 175 145
0.074219 0.781250 0.000658 234 234 225
-0.113281 0.777344 0.001073 30 23 27
-0.109375 0.777344 0.009274 204 187 177
-0.105469 0.777344 0.013212 198 175 149
-0.101562 0.777344 0.017808 196 171 142
-0.097656 0.777344 0.021399 182 155 130
-0.093750 0.777344 0.023804 134 108 90
-0.089844 0.777344 0.025841 137 111 96
-0.085938 0.777344 0.028048 178 149 132
-0.082031 0.777344 0.029513 172 141 116
-0.078125 0.777344 0.029773 129 95 70
-0.074219 0.777344 0.033755 161 118 92
-0.070312 0.777344 0.044741 215 178 154
-0.066406 0.777344 0.056673 228 193 174
-0.062500 0.777344 0.064843 228 194 177
-0.058594 0.777344 0.070638 229 196 181
-0.054688 0.777344 0.073839 231 201 184
-0.050781 0.777344 0.076553 227 195 177
-0.046875 0.777344 0.078989 204 161 143
-0.042969 0.777344 0.080105 182 140 121
-0.039062 0.777344 0.079887 184 142 123
-0.035156 0.777344 0.079448 173 129 109
-0.031250 0.777344 0.079149 166 122 100
-0.027344 0.777344 0.079579 171 124 104
-0.023438 0.777344 0.081377 189 143 120
-0.019531 0.777344 0.083360 206 167 144
-0.015625 0.777344 0.085405 207 165 145
-0.011719 0.777344 0.086691 217 171 153
-0.007812 0.777344 0.087171 228 191 172
-0.003906 0.777344 0.087427 229 200 180
0.000000 0.777344 0.087003 215 179 157
0.003906 0.777344 0.084961 163 119 96
0.007812 0.777344 0.081017 141 101 78
0.011719 0.777344 0.077562 146 107 87
0.015625 0.777344 0.074789 127 97 82
0.019531 0.777344 0.072565 129 102 92
0.023438 0.777344 0.071247 109 83 78
0.027344 0.777344 0.069825 84 63 59
0.031250 0.777344 0.067878 91 70 62
0.035156 0.777344 0.065309 81 59 48
0.039062 0.777344 0.062153 98 68 46
0.042969 0.777344 0.059020 143 98 65
0.046875 0.777344 0.055376 136 89 60
0.050781 0.777344 0.050552 158 118 81
0.054688 0.777344 0.044388 191 166 123
0.058594 0.777344 0.034299 170 150 106
0.062500 0.777344 0.017157 185 165 121
0.066406 0.777344 0.004732 178 155 119
0.070312 0.777344 0.001258 161 148 121
0.074219 0.777344 -0.000385 191 189 176
-0.113281 0.773438 0.002228 113 106 100
-0.109375 0.773438 0.009736 200 186 174
-0.105469 0.773438 0.013613 196 176 147
-0.101562 0.773438 0.018361 204 182 150
-0.097656 0.773438 0.021791 169 143 117
-0.093750 0.773438 0.024026 121 99 85
-0.089844 0.773438 0.026114 154 131 115
-0.085938 0.773438 0.027990 184 157 134
-0.082031 0.773438 0.028552 148 115 89
-0.078125 0.773438 0.027609 108 75 58
-0.074219 0.773438 0.031515 160 116 96
-0.070312 0.773438 0.044172 216 180 159
-0.066406 0.773438 0.056785 227 191 172
-0.062500 0.773438 0.064861 227 189 173
-0.058594 0.773438 0.070350 227 192 176
-0.054688 0.773438 0.072958 223 183 164
-0.050781 0.773438 0.074907 200 152 131
-0.046875 0.773438 0.076765 157 108 95
-0.042969 0.773438 0.077671 140 103 92
-0.039062 0.773438 0.077546 136 103 95
-0.035156 0.773438 0.077199 111 82 76
-0.031250 0.773438 0.077116 118 88 79
-0.027344 0.773438 0.078009 136 96 86
-0.023438 0.773438 0.080433 157 108 93
-0.019531 0.773438 0.083187 200 157 136
-0.015625 0.773438 0.086002 215 177 160
-0.011719 0.773438 0.087643 220 176 162
-0.007812 0.773438 0.088147 228 190 174
-0.003906 0.773438 0.088418 232 203 185
0.000000 0.773438 0.087947 215 179 158
0.003906 0.773438 0.085535 153 110 88
0.007812 0.773438 0.080724 141 103 79
0.011719 0.773438 0.076806 157 118 96
0.015625 0.773438 0.073879 140 104 92
0.019531 0.773438 0.071474 120 94 89
0.023438 0.773438 0.070069 62 53 56
0.027344 0.773438 0.068654 51 44 46
0.031250 0.773438 0.066773 96 76 70
0.035156 0.773438 0.064079 84 62 53
0.039062 0.773438 0.060504 71 49 36
0.042969 0.773438 0.057259 121 78 54
0.046875 0.773438 0.053674 135 85 58
0.050781 0.773438 0.048878 132 90 59
0.054688 0.773438 0.043226 182 152 104
0.058594 0.773438 0.034081 183 162 115
0.062500 0.773438 0.017022 181 161 118
0.066406 0.773438 0.003408 191 167 132
0.070312 0.773438 -0.000333 165 146 119
0.074219 0.773438 -0.002618 195 185 166
-0.113281 0.769531 0.003752 236 236 219
-0.109375 0.769531 0.010352 224 217 200
-0.105469 0.769531 0.014167 197 178 151
-0.101562 0.769531 0.018672 198 174 144
-0.097656 0.769531 0.021950 151 125 101
-0.093750 0.769531 0.024560 130 110 90
-0.089844 0.769531 0.027116 180 159 134
-0.085938 0.769531 0.028218 182 155 126
-0.082031 0.769531 0.027441 126 94 71
-0.078125 0.769531 0.025400 101 70 54
-0.074219 0.769531 0.029686 160 117 97
-0.070312 0.769531 0.044173 217 181 159
-0.066406 0.769531 0.056985 229 192 173
-0.062500 0.769531 0.064734 228 191 174
-0.058594 0.769531 0.069869 227 191 174
-0.054688 0.769531 0.071878 210 162 145
-0.050781 0.769531 0.073119 152 100 86
-0.046875 0.769531 0.074645 99 64 56
-0.042969 0.769531 0.075704 95 72 66
-0.039062 0.769531 0.075840 76 66 67
-0.035156 0.769531 0.075649 48 45 50
-0.031250 0.769531 0.075838 87 76 74
-0.027344 0.769531 0.077127 139 108 96
-0.023438 0.769531 0.079832 140 98 83
-0.019531 0.769531 0.083049 187 142 124
-0.015625 0.769531 0.086593 222 187 174
-0.011719 0.769531 0.088676 228 190 177
-0.007812 0.769531 0.089147 229 190 175
-0.003906 0.769531 0.089378 231 200 183
0.000000 0.769531 0.089016 218 181 160
0.003906 0.769531 0.086358 161 118 96
0.007812 0.769531 0.080636 155 115 91
0.011719 0.769531 0.076350 180 140 120
0.015625 0.769531 0.073405 169 129 116
0.019531 0.769531 0.070886 146 115 107
0.023438 0.769531 0.069467 96 80 78
0.027344 0.769531 0.068112 90 76 71
0.031250 0.769531 0.066253 130 102 91
0.035156 0.769531 0.063348 106 76 64
0.039062 0.769531 0.059448 75 50 38
0.042969 0.769531 0.056037 116 74 54
0.046875 0.769531 0.051951 148 94 67
0.050781 0.769531 0.046490 127 81 53
0.054688 0.769531 0.040791 173 135 91
0.058594 0.769531 0.032442 196 171 127
0.062500 0.769531 0.016283 181 159 117
0.066406 0.769531 0.002680 188 166 127
0.070312 0.769531 -0.001567 159 142 110
0.074219 0.769531 -0.004586 208 199 177
0.078125 0.769531 -0.008288 181 171 167
-0.113281 0.765625 0.005010 233 230 214
-0.109375 0.765625 0.010732 218 209 192
-0.105469 0.765625 0.014465 194 173 149
-0.101562 0.765625 0.018764 187 163 134
-0.097656 0.765625 0.022400 151 124 103
-0.093750 0.765625 0.025819 160 137 117
-0.089844 0.765625 0.028366 195 174 148
-0.085938 0.765625 0.028051 170 139 110
-0.082031 0.765625 0.026032 116 84 62
-0.078125 0.765625 0.023146 108 76 58
-0.074219 0.765625 0.028193 165 123 103
-0.070312 0.765625 0.044326 219 183 162
-0.066406 0.765625 0.057130 231 195 177
-0.062500 0.765625 0.064513 230 193 176
-0.058594 0.765625 0.069386 227 190 172
-0.054688 0.765625 0.071151 208 160 142
-0.050781 0.765625 0.072201 142 95 83
-0.046875 0.765625 0.073650 87 60 54
-0.042969 0.765625 0.074761 109 84 77
-0.039062 0.765625 0.075195 131 109 105
-0.035156 0.765625 0.075215 103 89 91
-0.031250 0.765625 0.075418 131 109 105
-0.027344 0.765625 0.076780 169 132 120
-0.023438 0.765625 0.079609 164 119 104
-0.019531 0.765625 0.083189 191 146 131
-0.015625 0.765625 0.087312 220 182 171
-0.011719 0.765625 0.089733 229 188 177
-0.007812 0.765625 0.090220 230 188 173
-0.003906 0.765625 0.090463 232 197 180
0.000000 0.765625 0.090308 222 185 166
0.003906 0.765625 0.087565 173 129 109
0.007812 0.765625 0.080908 162 120 99
0.011719 0.765625 0.076037 196 159 140
0.015625 0.765625 0.072960 196 162 147
0.019531 0.765625 0.070440 177 144 132
0.023438 0.765625 0.069200 153 120 112
0.027344 0.765625 0.067811 135 106 97
0.031250 0.765625 0.065849 125 96 84
0.035156 0.765625 0.062959 113 81 68
0.039062 0.765625 0.059040 111 76 59
0.042969 0.765625 0.055414 139 95 71
0.046875 0.765625 0.050573 160 109 77
0.050781 0.765625 0.044037 126 79 50
0.054688 0.765625 0.037579 162 115 77
0.058594 0.765625 0.029796 206 178 137
0.062500 0.765625 0.015182 187 161 122
0.066406 0.765625 0.002222 186 161 123
0.070312 0.765625 -0.002575 166 148 116
0.074219 0.765625 -0.005727 177 167 141
0.078125 0.765625 -0.008705 186 180 168
-0.113281 0.761719 0.005554 231 226 212
-0.109375 0.761719 0.011129 215 205 189
-0.105469 0.761719 0.014754 192 172 147
-0.101562 0.761719 0.019088 185 163 133
-0.097656 0.761719 0.023345 170 147 123
-0.093750 0.761719 0.027159 183 160 140
-0.089844 0.761719 0.029138 187 163 138
-0.085938 0.761719 0.027215 140 106 84
-0.082031 0.761719 0.023852 103 73 56
-0.078125 0.761719 0.020517 111 79 62
-0.074219 0.761719 0.027241 165 122 103
-0.070312 0.761719 0.044689 218 179 159
-0.066406 0.761719 0.057446 232 193 176
-0.062500 0.761719 0.064619 232 191 176
-0.058594 0.761719 0.069448 230 192 175
-0.054688 0.761719 0.071393 224 184 166
-0.050781 0.761719 0.072713 196 153 135
-0.046875 0.761719 0.074184 149 112 101
-0.042969 0.761719 0.075118 147 113 105
-0.039062 0.761719 0.075711 164 129 122
-0.035156 0.761719 0.075865 148 112 109
-0.031250 0.761719 0.075936 142 105 101
-0.027344 0.761719 0.077243 160 116 110
-0.023438 0.761719 0.080259 184 138 127
-0.019531 0.761719 0.084211 210 170 157
-0.015625 0.761719 0.088667 223 185 173
-0.011719 0.761719 0.091293 229 186 175
-0.007812 0.761719 0.091889 231 188 174
-0.003906 0.761719 0.092152 233 197 181
0.000000 0.761719 0.092351 229 193 177
0.003906 0.761719 0.089784 188 146 126
0.007812 0.761719 0.082311 154 114 95
0.011719 0.761719 0.076554 188 149 130
0.015625 0.761719 0.073159 205 174 158
0.019531 0.761719 0.070560 197 165 152
0.023438 0.761719 0.069486 188 152 141
0.027344 0.761719 0.068119 175 138 126
0.031250 0.761719 0.066150 154 119 105
0.035156 0.761719 0.063447 156 118 100
0.039062 0.761719 0.059560 170 127 103
0.042969 0.761719 0.055576 178 134 104
0.046875 0.761719 0.050147 180 133 96
0.050781 0.761719 0.042473 135 87 55
0.054688 0.761719 0.034368 141 94 60
0.058594 0.761719 0.026958 197 164 121
0.062500 0.761719 0.014231 182 155 114
0.066406 0.761719 0.002267 177 152 114
0.070312 0.761719 -0.003115 183 165 129
0.074219 0.761719 -0.006964 168 153 120
0.078125 0.761719 -0.008987 210 201 182
-0.113281 0.757812 0.005781 238 236 223
-0.109375 0.757812 0.011390 218 209 193
-0.105469 0.757812 0.015081 190 169 146
-0.101562 0.757812 0.019753 192 170 143
-0.097656 0.757812 0.024248 192 169 145
-0.093750 0.757812 0.027549 189 164 141
-0.089844 0.757812 0.028392 166 138 110
-0.085938 0.757812 0.024980 116 83 64
-0.082031 0.757812 0.020804 101 69 53
-0.078125 0.757812 0.017558 114 81 63
-0.074219 0.757812 0.026215 164 121 101
-0.070312 0.757812 0.044827 218 178 158
-0.066406 0.757812 0.057759 234 195 178
-0.062500 0.757812 0.064970 235 193 177
-0.058594 0.757812 0.069959 234 193 177
-0.054688 0.757812 0.072233 232 194 178
-0.050781 0.757812 0.073957 226 189 172
-0.046875 0.757812 0.075635 215 176 159
-0.042969 0.757812 0.076531 204 163 148
-0.039062 0.757812 0.077118 195 155 143
-0.035156 0.757812 0.077366 192 148 139
-0.031250 0.757812 0.077427 195 150 139
-0.027344 0.757812 0.078689 199 154 142
-0.023438 0.757812 0.081761 211 170 159
-0.019531 0.757812 0.085910 224 189 178
-0.015625 0.757812 0.090565 229 190 179
-0.011719 0.757812 0.093413 232 188 175
-0.007812 0.757812 0.094259 233 187 172
-0.003906 0.757812 0.094607 234 194 179
0.000000 0.757812 0.095028 233 199 184
0.003906 0.757812 0.092656 208 170 151
0.007812 0.757812 0.084930 164 121 104
0.011719 0.757812 0.078100 176 131 114
0.015625 0.757812 0.074163 204 167 151
0.019531 0.757812 0.071475 208 174 160
0.023438 0.757812 0.070562 208 173 160
0.027344 0.757812 0.069341 211 174 160
0.031250 0.757812 0.067593 206 168 152
0.035156 0.757812 0.065035 206 167 147
0.039062 0.757812 0.061035 205 165 143
0.042969 0.757812 0.056558 199 159 132
0.046875 0.757812 0.050459 196 152 118
0.050781 0.757812 0.041496 159 106 74
0.054688 0.757812 0.031172 129 82 55
0.058594 0.757812 0.023442 177 139 98
0.062500 0.757812 0.013004 177 149 107
0.066406 0.757812 0.002522 168 143 103
0.070312 0.757812 -0.003501 194 174 136
0.074219 0.757812 -0.008016 183 161 127
0.078125 0.757812 -0.009302 235 227 208
-0.113281 0.753906 0.006050 239 236 224
-0.109375 0.753906 0.011670 217 207 193
-0.105469 0.753906 0.015484 193 172 152
-0.101562 0.753906 0.020507 203 183 156
-0.097656 0.753906 0.024807 203 181 155
-0.093750 0.753906 0.026871 180 151 126
-0.089844 0.753906 0.025736 140 110 83
-0.085938 0.753906 0.021186 105 72 54
-0.082031 0.753906 0.016795 101 68 50
-0.078125 0.753906 0.014351 115 80 61
-0.074219 0.753906 0.024847 165 120 101
-0.070312 0.753906 0.044563 219 177 157
-0.066406 0.753906 0.057696 234 193 176
-0.062500 0.753906 0.065097 235 191 175
-0.058594 0.753906 0.070268 235 189 174
-0.054688 0.753906 0.072740 233 190 175
-0.050781 0.753906 0.074755 231 191 175
-0.046875 0.753906 0.076756 231 193 177
-0.042969 0.753906 0.077874 230 194 179
-0.039062 0.753906 0.078490 227 192 178
-0.035156 0.753906 0.078935 228 193 180
-0.031250 0.753906 0.079158 229 195 182
-0.027344 0.753906 0.080422 225 188 177
-0.023438 0.753906 0.083526 225 188 178
-0.019531 0.753906 0.087854 228 192 183
-0.015625 0.753906 0.092801 230 188 177
-0.011719 0.753906 0.095914 233 185 171
-0.007812 0.753906 0.096943 234 184 169
-0.003906 0.753906 0.097422 235 191 177
0.000000 0.753906 0.097849 235 199 186
0.003906 0.753906 0.095654 222 187 170
0.007812 0.753906 0.088175 189 145 127
0.011719 0.753906 0.080815 178 129 112
0.015625 0.753906 0.075996 203 162 144
0.019531 0.753906 0.073053 214 178 163
0.023438 0.753906 0.072210 214 176 162
0.027344 0.753906 0.071006 218 178 164
0.031250 0.753906 0.069352 220 180 164
0.035156 0.753906 0.066796 219 179 161
0.039062 0.753906 0.062417 215 176 156
0.042969 0.753906 0.057398 204 164 141
0.046875 0.753906 0.050998 197 152 123
0.050781 0.753906 0.040871 171 119 87
0.054688 0.753906 0.028084 123 78 54
0.058594 0.753906 0.019069 155 116 80
0.062500 0.753906 0.011639 185 157 115
0.066406 0.753906 0.003047 174 151 108
0.070312 0.753906 -0.003518 202 181 143
0.074219 0.753906 -0.008294 190 165 137
0.078125 0.753906 -0.009604 213 196 178
0.082031 0.753906 -0.011148 246 241 236
-0.113281 0.750000 0.006328 238 236 224
-0.109375 0.750000 0.012020 216 208 192
-0.105469 0.750000 0.015964 202 183 163
-0.101562 0.750000 0.021067 212 193 165
-0.097656 0.750000 0.024484 200 175 146
-0.093750 0.750000 0.024748 162 127 100
-0.089844 0.750000 0.021828 118 84 59
-0.085938 0.750000 0.016758 96 62 45
-0.082031 0.750000 0.012676 102 66 48
-0.078125 0.750000 0.011341 120 82 61
-0.074219 0.750000 0.022832 172 126 104
-0.070312 0.750000 0.043695 219 176 156
-0.066406 0.750000 0.057170 233 190 172
-0.062500 0.750000 0.064845 235 188 173
-0.058594 0.750000 0.070255 236 189 174
-0.054688 0.750000 0.072999 237 192 178
-0.050781 0.750000 0.075296 236 193 180
-0.046875 0.750000 0.077609 234 192 179
-0.042969 0.750000 0.079068 232 191 179
-0.039062 0.750000 0.079862 230 188 178
-0.035156 0.750000 0.080500 229 188 179
-0.031250 0.750000 0.080903 229 189 179
-0.027344 0.750000 0.082280 227 187 178
-0.023438 0.750000 0.085589 231 194 186
-0.019531 0.750000 0.090282 233 199 189
-0.015625 0.750000 0.095578 231 190 178
-0.011719 0.750000 0.098907 232 185 172
-0.007812 0.750000 0.100157 234 189 175
-0.003906 0.750000 0.100772 237 196 185
0.000000 0.750000 0.101132 236 201 190
0.003906 0.750000 0.099054 228 197 182
0.007812 0.750000 0.091730 207 167 149
0.011719 0.750000 0.084240 182 133 114
0.015625 0.750000 0.078462 200 155 135
0.019531 0.750000 0.075055 220 183 166
0.023438 0.750000 0.074168 221 184 169
0.027344 0.750000 0.072905 221 179 164
0.031250 0.750000 0.071171 221 177 161
0.035156 0.750000 0.068444 221 177 159
0.039062 0.750000 0.063670 219 177 157
0.042969 0.750000 0.058111 207 164 142
0.046875 0.750000 0.051172 193 145 119
0.050781 0.750000 0.039710 173 122 91
0.054688 0.750000 0.024244 113 71 49
0.058594 0.750000 0.013793 124 88 59
0.062500 0.750000 0.010275 185 158 113
0.066406 0.750000 0.003727 173 150 107
0.070312 0.750000 -0.003318 196 174 135
0.074219 0.750000 -0.008137 197 175 146
0.078125 0.750000 -0.009943 191 170 150
0.082031 0.750000 -0.011170 246 242 234
-0.113281 0.746094 0.006150 237 236 223
-0.109375 0.746094 0.012064 215 209 193
-0.105469 0.746094 0.016294 211 195 175
-0.101562 0.746094 0.021300 215 194 166
-0.097656 0.746094 0.023568 190 159 126
-0.093750 0.746094 0.022074 145 104 77
-0.089844 0.746094 0.017558 104 68 44
-0.085938 0.746094 0.012060 94 59 39
-0.082031 0.746094 0.008995 107 69 48
-0.078125 0.746094 0.008328 125 83 60
-0.074219 0.746094 0.019611 173 124 101
-0.070312 0.746094 0.041910 216 172 149
-0.066406 0.746094 0.055987 231 187 168
-0.062500 0.746094 0.064095 235 187 171
-0.058594 0.746094 0.069795 237 187 172
-0.054688 0.746094 0.072922 238 191 177
-0.050781 0.746094 0.075619 239 194 182
-0.046875 0.746094 0.078215 238 196 185
-0.042969 0.746094 0.079916 237 195 186
-0.039062 0.746094 0.080886 236 196 188
-0.035156 0.746094 0.081647 236 197 190
-0.031250 0.746094 0.082184 235 198 189
-0.027344 0.746094 0.083663 235 197 188
-0.023438 0.746094 0.087156 236 202 193
-0.019531 0.746094 0.092213 235 200 189
-0.015625 0.746094 0.097660 229 187 174
-0.011719 0.746094 0.100974 230 186 173
-0.007812 0.746094 0.102286 235 194 181
-0.003906 0.746094 0.102869 237 200 187
0.000000 0.746094 0.102941 233 200 187
0.003906 0.746094 0.100816 228 198 184
0.007812 0.746094 0.093831 215 177 160
0.011719 0.746094 0.086293 189 141 120
0.015625 0.746094 0.079964 193 148 124
0.019531 0.746094 0.076318 215 176 156
0.023438 0.746094 0.075514 223 185 169
0.027344 0.746094 0.074193 224 183 168
0.031250 0.746094 0.072466 223 177 162
0.035156 0.746094 0.069620 222 174 157
0.039062 0.746094 0.064364 218 171 152
0.042969 0.746094 0.058253 205 157 136
0.046875 0.746094 0.050749 188 136 111
0.050781 0.746094 0.037991 173 121 90
0.054688 0.746094 0.018465 109 68 47
0.058594 0.746094 0.007656 100 68 45
0.062500 0.746094 0.008680 183 154 109
0.066406 0.746094 0.004434 177 153 111
0.070312 0.746094 -0.003182 181 158 119
0.074219 0.746094 -0.007913 192 172 140
0.078125 0.746094 -0.010095 173 158 131
0.082031 0.746094 -0.011003 248 245 236
-0.113281 0.742188 0.005565 236 235 223
-0.109375 0.742188 0.011743 216 210 197
-0.105469 0.742188 0.016013 215 199 182
-0.101562 0.742188 0.020786 211 188 159
-0.097656 0.742188 0.022368 178 144 110
-0.093750 0.742188 0.019726 134 92 65
-0.089844 0.742188 0.014244 97 61 39
-0.085938 0.742188 0.008929 97 60 40
-0.082031 0.742188 0.005910 109 68 48
-0.078125 0.742188 0.005358 119 76 55
-0.074219 0.742188 0.015641 166 114 91
-0.070312 0.742188 0.039522 211 162 139
-0.066406 0.742188 0.054411 229 184 164
-0.062500 0.742188 0.062968 234 186 170
-0.058594 0.742188 0.068963 236 184 169
-0.054688 0.742188 0.072464 238 187 174
-0.050781 0.742188 0.075580 239 194 181
-0.046875 0.742188 0.078516 240 199 189
-0.042969 0.742188 0.080471 240 203 194
-0.039062 0.742188 0.081602 241 207 200
-0.035156 0.742188 0.082463 241 210 203
-0.031250 0.742188 0.083149 240 207 199
-0.027344 0.742188 0.084670 237 200 191
-0.023438 0.742188 0.088247 233 192 181
-0.019531 0.742188 0.093455 227 184 172
-0.015625 0.742188 0.098822 227 186 174
-0.011719 0.742188 0.101950 234 197 184
-0.007812 0.742188 0.102817 236 201 186
-0.003906 0.742188 0.103036 235 198 184
0.000000 0.742188 0.102855 232 199 188
0.003906 0.742188 0.100687 227 196 184
0.007812 0.742188 0.094015 209 167 150
0.011719 0.742188 0.086599 183 132 112
0.015625 0.742188 0.080291 189 142 119
0.019531 0.742188 0.076647 207 163 142
0.023438 0.742188 0.076048 220 179 160
0.027344 0.742188 0.074854 225 185 169
0.031250 0.742188 0.073204 223 179 163
0.035156 0.742188 0.070202 219 171 154
0.039062 0.742188 0.064424 215 164 145
0.042969 0.742188 0.057654 202 149 127
0.046875 0.742188 0.049550 184 127 102
0.050781 0.742188 0.036139 171 117 86
0.054688 0.742188 0.011869 108 67 46
0.058594 0.742188 0.002777 84 56 37
0.062500 0.742188 0.007507 179 149 105
0.066406 0.742188 0.005091 186 163 121
0.070312 0.742188 -0.003163 169 147 110
0.074219 0.742188 -0.007754 189 168 137
0.078125 0.742188 -0.010262 173 155 131
0.082031 0.742188 -0.011048 240 235 222
-0.117188 0.738281 -0.004955 33 23 26
-0.113281 0.738281 0.004704 234 233 222
-0.109375 0.738281 0.011012 217 212 201
-0.105469 0.738281 0.015300 214 200 184
-0.101562 0.738281 0.019911 206 182 155
-0.097656 0.738281 0.021065 177 143 110
-0.093750 0.738281 0.017748 135 91 64
-0.089844 0.738281 0.012032 100 61 38
-0.085938 0.738281 0.007378 101 60 41
-0.082031 0.738281 0.003832 102 62 44
-0.078125 0.738281 0.003090 108 69 48
-0.074219 0.738281 0.011484 159 109 83
-0.070312 0.738281 0.036144 204 153 126
-0.066406 0.738281 0.052429 224 177 154
-0.062500 0.738281 0.061505 232 183 165
-0.058594 0.738281 0.067811 235 181 166
-0.054688 0.738281 0.071803 238 187 172
-0.050781 0.738281 0.075389 240 193 181
-0.046875 0.738281 0.078710 241 199 189
-0.042969 0.738281 0.080962 241 203 194
-0.039062 0.738281 0.082252 241 208 200
-0.035156 0.738281 0.083190 242 211 203
-0.031250 0.738281 0.083986 240 206 197
-0.027344 0.738281 0.085542 236 196 184
-0.023438 0.738281 0.089154 228 182 168
-0.019531 0.738281 0.094231 225 182 168
-0.015625 0.738281 0.099088 231 196 182
-0.011719 0.738281 0.101615 228 190 173
-0.007812 0.738281 0.101561 206 154 135
-0.003906 0.738281 0.101117 200 143 129
0.000000 0.738281 0.101159 218 176 164
0.003906 0.738281 0.099224 218 181 165
0.007812 0.738281 0.092834 178 126 108
0.011719 0.738281 0.085767 143 91 77
0.015625 0.738281 0.079855 172 119 99
0.019531 0.738281 0.076344 195 144 122
0.023438 0.738281 0.075930 210 163 142
0.027344 0.738281 0.075053 221 180 162
0.031250 0.738281 0.073625 220 178 161
0.035156 0.738281 0.070483 215 169 151
0.039062 0.738281 0.064287 209 158 138
0.042969 0.738281 0.056804 197 140 118
0.046875 0.738281 0.047874 180 121 96
0.050781 0.738281 0.033467 168 113 82
0.054688 0.738281 0.005099 108 66 46
0.058594 0.738281 -0.000302 73 47 32
0.062500 0.738281 0.006438 163 132 89
0.066406 0.738281 0.006113 188 164 121
0.070312 0.738281 -0.002277 165 140 102
0.074219 0.738281 -0.007822 191 168 133
0.078125 0.738281 -0.010635 188 169 141
0.082031 0.738281 -0.011524 228 220 201
0.085938 0.738281 -0.012276 238 237 229
-0.117188 0.734375 -0.007143 36 26 29
-0.113281 0.734375 0.003463 235 234 225
-0.109375 0.734375 0.010078 224 220 211
-0.105469 0.734375 0.014161 214 203 190
-0.101562 0.734375 0.018522 205 183 159
-0.097656 0.734375 0.019608 185 152 122
-0.093750 0.734375 0.016432 132 92 65
-0.089844 0.734375 0.011164 94 59 37
-0.085938 0.734375 0.006404 95 57 39
-0.082031 0.734375 0.002362 84 52 37
-0.078125 0.734375 0.001257 98 62 43
-0.074219 0.734375 0.008614 157 104 78
-0.070312 0.734375 0.033114 198 142 114
-0.066406 0.734375 0.050188 219 167 141
-0.062500 0.734375 0.059743 229 177 157
-0.058594 0.734375 0.066403 234 179 162
-0.054688 0.734375 0.070895 238 185 169
-0.050781 0.734375 0.074939 239 190 176
-0.046875 0.734375 0.078609 240 195 183
-0.042969 0.734375 0.081102 240 198 187
-0.039062 0.734375 0.082488 240 201 192
-0.035156 0.734375 0.083506 240 204 194
-0.031250 0.734375 0.084331 238 200 188
-0.027344 0.734375 0.085924 234 189 174
-0.023438 0.734375 0.089507 228 178 162
-0.019531 0.734375 0.094113 230 187 171
-0.015625 0.734375 0.097996 229 188 171
-0.011719 0.734375 0.099486 188 133 116
-0.007812 0.734375 0.098528 115 67 58
-0.003906 0.734375 0.097762 130 76 67
0.000000 0.734375 0.098045 186 132 115
0.003906 0.734375 0.096387 191 142 119
0.007812 0.734375 0.090609 148 95 76
0.011719 0.734375 0.084265 128 76 60
0.015625 0.734375 0.078825 157 101 79
0.019531 0.734375 0.075363 173 118 93
0.023438 0.734375 0.075031 187 134 110
0.027344 0.734375 0.074462 208 161 139
0.031250 0.734375 0.073354 213 169 150
0.035156 0.734375 0.070213 210 163 143
0.039062 0.734375 0.063621 202 150 128
0.042969 0.734375 0.055455 189 131 107
0.046875 0.734375 0.045870 175 116 89
0.050781 0.734375 0.029844 164 111 78
0.054688 0.734375 -0.000644 107 66 45
0.058594 0.734375 -0.002435 65 41 27
0.062500 0.734375 0.004942 144 111 72
0.066406 0.734375 0.006355 187 161 116
0.070312 0.734375 -0.001752 164 138 98
0.074219 0.734375 -0.008216 189 166 126
0.078125 0.734375 -0.011266 192 174 142
0.082031 0.734375 -0.012247 211 201 180
0.085938 0.734375 -0.012297 237 236 229
-0.117188 0.730469 -0.010025 46 35 37
-0.113281 0.730469 0.002003 238 238 229
-0.109375 0.730469 0.008954 229 227 220
-0.105469 0.730469 0.012620 216 206 196
-0.101562 0.730469 0.016572 206 186 164
-0.097656 0.730469 0.017901 190 159 130
-0.093750 0.730469 0.015709 133 95 69
-0.089844 0.730469 0.011666 100 65 44
-0.085938 0.730469 0.006382 100 61 45
-0.082031 0.730469 0.001450 96 59 44
-0.078125 0.730469 -0.000332 128 83 60
-0.074219 0.730469 0.007570 168 113 87
-0.070312 0.730469 0.031526 193 134 105
-0.066406 0.730469 0.047988 217 162 134
-0.062500 0.730469 0.057876 228 175 153
-0.058594 0.730469 0.064828 234 178 158
-0.054688 0.730469 0.069577 238 185 166
-0.050781 0.730469 0.073875 239 189 172
-0.046875 0.730469 0.077802 240 193 177
-0.042969 0.730469 0.080522 239 194 180
-0.039062 0.730469 0.082014 237 194 180
-0.035156 0.730469 0.083142 235 193 179
-0.031250 0.730469 0.084102 233 186 170
-0.027344 0.730469 0.085852 227 174 156
-0.023438 0.730469 0.089534 225 172 154
-0.019531 0.730469 0.093848 232 188 173
-0.015625 0.730469 0.097235 229 184 171
-0.011719 0.730469 0.098433 192 133 121
-0.007812 0.730469 0.097581 161 105 92
-0.003906 0.730469 0.097017 185 130 114
0.000000 0.730469 0.096863 199 148 131
0.003906 0.730469 0.094799 183 132 112
0.007812 0.730469 0.089293 157 103 83
0.011719 0.730469 0.083378 154 97 75
0.015625 0.730469 0.077969 168 110 83
0.019531 0.730469 0.074193 169 113 86
0.023438 0.730469 0.073495 173 119 94
0.027344 0.730469 0.072977 193 142 118
0.031250 0.730469 0.072109 203 156 133
0.035156 0.730469 0.069055 201 153 131
0.039062 0.730469 0.062262 196 144 121
0.042969 0.730469 0.053536 183 126 102
0.046875 0.730469 0.043401 173 115 86
0.050781 0.730469 0.025393 163 110 77
0.054688 0.730469 -0.005023 108 66 44
0.058594 0.730469 -0.004488 63 38 25
0.062500 0.730469 0.003025 127 94 59
0.066406 0.730469 0.006041 187 159 115
0.070312 0.730469 -0.001673 167 141 100
0.074219 0.730469 -0.008720 178 154 112
0.078125 0.730469 -0.012087 190 173 138
0.082031 0.730469 -0.013282 200 187 162
0.085938 0.730469 -0.012842 243 240 231
-0.113281 0.726562 0.000406 238 239 232
-0.109375 0.726562 0.007684 230 228 222
-0.105469 0.726562 0.010853 214 205 195
-0.101562 0.726562 0.014408 205 187 166
-0.097656 0.726562 0.016149 192 162 136
-0.093750 0.726562 0.015356 144 106 80
-0.089844 0.726562 0.012697 121 84 62
-0.085938 0.726562 0.007247 105 66 55
-0.082031 0.726562 0.001034 103 64 52
-0.078125 0.726562 -0.001630 162 115 85
-0.074219 0.726562 0.005307 187 137 104
-0.070312 0.726562 0.029826 192 133 104
-0.066406 0.726562 0.045690 215 156 130
-0.062500 0.726562 0.055547 226 170 147
-0.058594 0.726562 0.062675 233 175 153
-0.054688 0.726562 0.067618 236 181 160
-0.050781 0.726562 0.072059 237 184 164
-0.046875 0.726562 0.076205 238 188 169
-0.042969 0.726562 0.079130 238 191 173
-0.039062 0.726562 0.080732 235 189 171
-0.035156 0.726562 0.081971 232 185 165
-0.031250 0.726562 0.083206 228 176 156
-0.027344 0.726562 0.085188 225 171 150
-0.023438 0.726562 0.089045 229 179 160
-0.019531 0.726562 0.093303 235 194 179
-0.015625 0.726562 0.096745 237 198 184
-0.011719 0.726562 0.098494 232 187 171
-0.007812 0.726562 0.098341 230 185 168
-0.003906 0.726562 0.097883 229 185 167
0.000000 0.726562 0.097149 218 167 148
0.003906 0.726562 0.094694 200 145 123
0.007812 0.726562 0.089292 173 116 95
0.011719 0.726562 0.083358 151 95 74
0.015625 0.726562 0.077603 152 95 71
0.019531 0.726562 0.073325 157 101 75
0.023438 0.726562 0.071890 158 106 82
0.027344 0.726562 0.070923 179 128 104
0.031250 0.726562 0.069948 194 147 122
0.035156 0.726562 0.066891 193 145 120
0.039062 0.726562 0.060081 191 141 117
0.042969 0.726562 0.051036 181 126 100
0.046875 0.726562 0.040555 170 115 84
0.050781 0.726562 0.020017 158 107 74
0.054688 0.726562 -0.009123 103 63 42
0.058594 0.726562 -0.006973 59 36 24
0.062500 0.726562 0.000237 109 78 49
0.066406 0.726562 0.004727 186 157 113
0.070312 0.726562 -0.002161 177 150 108
0.074219 0.726562 -0.009385 168 142 99
0.078125 0.726562 -0.012999 194 175 136
0.082031 0.726562 -0.014241 196 182 152
0.085938 0.726562 -0.013539 231 230 214
-0.113281 0.722656 -0.001660 238 239 232
-0.109375 0.722656 0.006166 228 227 222
-0.105469 0.722656 0.008597 211 202 193
-0.101562 0.722656 0.011933 203 184 166
-0.097656 0.722656 0.014154 192 164 140
-0.093750 0.722656 0.015100 158 123 97
-0.089844 0.722656 0.014434 147 110 86
-0.085938 0.722656 0.008413 114 77 66
-0.082031 0.722656 0.000387 85 57 47
-0.078125 0.722656 -0.004317 152 113 85
-0.074219 0.722656 -0.000147 201 158 127
-0.070312 0.722656 0.027295 205 152 125
-0.066406 0.722656 0.043419 215 160 136
-0.062500 0.722656 0.052872 225 171 147
-0.058594 0.722656 0.060447 232 177 152
-0.054688 0.722656 0.065571 235 180 156
-0.050781 0.722656 0.069930 234 178 156
-0.046875 0.722656 0.074135 235 183 161
-0.042969 0.722656 0.077244 236 189 168
-0.039062 0.722656 0.079041 232 183 161
-0.035156 0.722656 0.080475 225 173 150
-0.031250 0.722656 0.082101 222 169 145
-0.027344 0.722656 0.084469 225 173 151
-0.023438 0.722656 0.088419 231 184 168
-0.019531 0.722656 0.092462 235 188 175
-0.015625 0.722656 0.095766 237 191 178
-0.011719 0.722656 0.097714 240 194 181
-0.007812 0.722656 0.097822 240 194 181
-0.003906 0.722656 0.097231 236 182 166
0.000000 0.722656 0.096365 228 167 149
0.003906 0.722656 0.094066 226 169 147
0.007812 0.722656 0.089038 214 154 130
0.011719 0.722656 0.083210 184 121 97
0.015625 0.722656 0.077282 167 105 81
0.019531 0.722656 0.072589 164 106 80
0.023438 0.722656 0.070500 157 107 82
0.027344 0.722656 0.068973 171 125 100
0.031250 0.722656 0.067631 186 142 115
0.035156 0.722656 0.064336 188 141 116
0.039062 0.722656 0.057461 193 146 120
0.042969 0.722656 0.048171 182 129 103
0.046875 0.722656 0.037598 168 115 85
0.050781 0.722656 0.014163 156 108 75
0.054688 0.722656 -0.012440 103 66 43
0.058594 0.722656 -0.009403 63 39 25
0.062500 0.722656 -0.002964 94 67 42
0.066406 0.722656 0.002527 176 147 104
0.070312 0.722656 -0.003100 183 156 114
0.074219 0.722656 -0.010225 163 136 93
0.078125 0.722656 -0.013893 196 175 134
0.082031 0.722656 -0.014938 200 185 155
0.085938 0.722656 -0.014077 226 225 209
-0.113281 0.718750 -0.003818 239 240 234
-0.109375 0.718750 0.004297 229 228 223
-0.105469 0.718750 0.006395 212 202 194
-0.101562 0.718750 0.009679 205 187 169
-0.097656 0.718750 0.012301 194 169 146
-0.093750 0.718750 0.014627 173 142 117
-0.089844 0.718750 0.015588 171 136 110
-0.085938 0.718750 0.009415 133 99 81
-0.082031 0.718750 0.000208 72 53 42
-0.078125 0.718750 -0.007571 100 69 54
-0.074219 0.718750 -0.007626 166 114 94
-0.070312 0.718750 0.016729 191 136 112
-0.066406 0.718750 0.040234 209 159 134
-0.062500 0.718750 0.050279 223 173 147
-0.058594 0.718750 0.058091 232 179 153
-0.054688 0.718750 0.063136 235 183 158
-0.050781 0.718750 0.067424 233 178 154
-0.046875 0.718750 0.071658 234 183 158
-0.042969 0.718750 0.074921 235 189 165
-0.039062 0.718750 0.077014 228 178 153
-0.035156 0.718750 0.078824 222 170 144
-0.031250 0.718750 0.080882 223 172 146
-0.027344 0.718750 0.083603 226 176 154
-0.023438 0.718750 0.087592 235 190 175
-0.019531 0.718750 0.091480 240 194 184
-0.015625 0.718750 0.094469 242 193 184
-0.011719 0.718750 0.096043 245 195 186
-0.007812 0.718750 0.095918 245 190 180
-0.003906 0.718750 0.095183 243 179 166
0.000000 0.718750 0.094339 242 175 160
0.003906 0.718750 0.092224 242 180 163
0.007812 0.718750 0.087599 238 168 146
0.011719 0.718750 0.082044 224 141 114
0.015625 0.718750 0.076187 213 130 101
0.019531 0.718750 0.071276 203 129 98
0.023438 0.718750 0.068705 184 125 97
0.027344 0.718750 0.066884 182 138 112
0.031250 0.718750 0.065236 188 147 120
0.035156 0.718750 0.061784 189 145 118
0.039062 0.718750 0.055035 195 150 122
0.042969 0.718750 0.045435 180 128 100
0.046875 0.718750 0.034635 167 115 85
0.050781 0.718750 0.007619 156 112 77
0.054688 0.718750 -0.014615 104 68 44
0.058594 0.718750 -0.011637 69 43 27
0.062500 0.718750 -0.005651 86 60 37
0.066406 0.718750 -0.000018 160 130 90
0.070312 0.718750 -0.004215 182 154 112
0.074219 0.718750 -0.010920 157 131 89
0.078125 0.718750 -0.014630 188 167 124
0.082031 0.718750 -0.015626 200 184 154
0.085938 0.718750 -0.014665 231 228 213
0.089844 0.718750 -0.014489 249 250 245
-0.113281 0.714844 -0.005047 239 240 234
-0.109375 0.714844 0.002599 227 226 221
-0.105469 0.714844 0.004464 210 200 193
-0.101562 0.714844 0.007617 207 189 172
-0.097656 0.714844 0.010536 199 177 155
-0.093750 0.714844 0.013357 186 159 134
-0.089844 0.714844 0.015263 183 151 124
-0.085938 0.714844 0.009921 151 117 93
-0.082031 0.714844 0.001014 74 55 41
-0.078125 0.714844 -0.009542 48 30 24
-0.074219 0.714844 -0.012140 69 38 32
-0.070312 0.714844 -0.000143 123 75 60
-0.066406 0.714844 0.035198 192 143 118
-0.062500 0.714844 0.047002 222 176 149
-0.058594 0.714844 0.055207 232 182 157
-0.054688 0.714844 0.060477 236 189 165
-0.050781 0.714844 0.065101 234 184 160
-0.046875 0.714844 0.069350 234 185 161
-0.042969 0.714844 0.072718 235 190 165
-0.039062 0.714844 0.075074 231 185 159
-0.035156 0.714844 0.077194 231 186 159
-0.031250 0.714844 0.079353 228 179 152
-0.027344 0.714844 0.081880 223 165 142
-0.023438 0.714844 0.085564 233 179 161
-0.019531 0.714844 0.089166 241 187 171
-0.015625 0.714844 0.091735 242 173 157
-0.011719 0.714844 0.092964 242 151 137
-0.007812 0.714844 0.092676 238 121 108
-0.003906 0.714844 0.091964 234 98 85
0.000000 0.714844 0.091108 233 91 77
0.003906 0.714844 0.089045 232 88 70
0.007812 0.714844 0.084900 220 69 51
0.011719 0.714844 0.079870 200 54 37
0.015625 0.714844 0.074350 186 52 36
0.019531 0.714844 0.069550 168 57 39
0.023438 0.714844 0.066858 156 77 57
0.027344 0.714844 0.065100 179 125 101
0.031250 0.714844 0.063239 197 156 128
0.035156 0.714844 0.059522 198 156 126
0.039062 0.714844 0.052729 196 151 120
0.042969 0.714844 0.042689 177 124 96
0.046875 0.714844 0.031760 170 118 89
0.050781 0.714844 0.000709 157 115 79
0.054688 0.714844 -0.016054 99 66 42
0.058594 0.714844 -0.013625 70 43 27
0.062500 0.714844 -0.007955 78 52 32
0.066406 0.714844 -0.002793 145 113 77
0.070312 0.714844 -0.005491 183 156 114
0.074219 0.714844 -0.011462 161 136 93
0.078125 0.714844 -0.015232 184 162 118
0.082031 0.714844 -0.016326 203 185 155
0.085938 0.714844 -0.015327 229 224 210
0.089844 0.714844 -0.014963 243 244 238
-0.113281 0.710938 -0.005694 239 240 234
-0.109375 0.710938 0.001315 227 226 221
-0.105469 0.710938 0.003076 208 198 191
-0.101562 0.710938 0.006044 207 190 174
-0.097656 0.710938 0.008701 202 181 159
-0.093750 0.710938 0.011271 193 169 143
-0.089844 0.710938 0.013297 187 157 128
-0.085938 0.710938 0.009539 165 130 101
-0.082031 0.710938 0.002092 93 68 50
-0.078125 0.710938 -0.009938 36 23 19
-0.074219 0.710938 -0.014734 33 19 17
-0.070312 0.710938 -0.011572 73 47 38
-0.066406 0.710938 0.025249 172 127 104
-0.062500 0.710938 0.043654 222 177 150
-0.058594 0.710938 0.052337 233 185 159
-0.054688 0.710938 0.057793 236 191 168
-0.050781 0.710938 0.062805 235 188 164
-0.046875 0.710938 0.067072 235 187 162
-0.042969 0.710938 0.070551 235 189 164
-0.039062 0.710938 0.073210 235 192 166
-0.035156 0.710938 0.075431 236 194 167
-0.031250 0.710938 0.077409 228 173 144
-0.027344 0.710938 0.079466 210 134 112
-0.023438 0.710938 0.082483 214 125 110
-0.019531 0.710938 0.085411 222 113 100
-0.015625 0.710938 0.087481 221 83 73
-0.011719 0.710938 0.088580 222 66 59
-0.007812 0.710938 0.088537 222 56 49
-0.003906 0.710938 0.088166 215 44 38
0.000000 0.710938 0.087479 205 34 28
0.003906 0.710938 0.085592 201 31 24
0.007812 0.710938 0.082068 194 29 20
0.011719 0.710938 0.077786 177 26 17
0.015625 0.710938 0.072764 146 23 15
0.019531 0.710938 0.068277 110 24 17
0.023438 0.710938 0.065559 119 48 36
0.027344 0.710938 0.063840 170 111 89
0.031250 0.710938 0.062056 199 156 128
0.035156 0.710938 0.058250 202 160 128
0.039062 0.710938 0.051190 192 147 113
0.042969 0.710938 0.040379 176 124 96
0.046875 0.710938 0.028305 179 127 100
0.050781 0.710938 -0.007407 156 115 80
0.054688 0.710938 -0.017231 94 64 39
0.058594 0.710938 -0.015405 69 42 25
0.062500 0.710938 -0.010187 69 45 26
0.066406 0.710938 -0.005344 129 99 65
0.070312 0.710938 -0.006706 184 158 115
0.074219 0.710938 -0.012074 164 139 95
0.078125 0.710938 -0.015955 175 151 106
0.082031 0.710938 -0.017190 199 180 146
0.085938 0.710938 -0.016141 222 216 197
0.089844 0.710938 -0.015723 245 245 238
-0.113281 0.707031 -0.005666 240 241 235
-0.109375 0.707031 0.000562 228 227 223
-0.105469 0.707031 0.002299 209 200 194
-0.101562 0.707031 0.004980 209 192 177
-0.097656 0.707031 0.006911 202 181 160
-0.093750 0.707031 0.008895 197 175 149
-0.089844 0.707031 0.010175 188 161 131
-0.085938 0.707031 0.007700 165 132 101
-0.082031 0.707031 0.001877 107 78 59
-0.078125 0.707031 -0.008595 43 27 23
-0.074219 0.707031 -0.015164 30 19 15
-0.070312 0.707031 -0.015697 54 37 29
-0.066406 0.707031 0.008632 146 106 87
-0.062500 0.707031 0.040189 216 169 143
-0.058594 0.707031 0.048538 231 183 157
-0.054688 0.707031 0.054380 236 189 166
-0.050781 0.707031 0.060146 236 188 164
-0.046875 0.707031 0.064825 236 186 161
-0.042969 0.707031 0.068378 236 189 164
-0.039062 0.707031 0.071048 237 192 167
-0.035156 0.707031 0.073296 237 194 167
-0.031250 0.707031 0.075322 234 184 155
-0.027344 0.707031 0.077289 228 164 138
-0.023438 0.707031 0.079884 226 145 127
-0.019531 0.707031 0.082283 221 109 97
-0.015625 0.707031 0.084115 213 74 65
-0.011719 0.707031 0.085279 220 69 61
-0.007812 0.707031 0.085631 230 79 69
-0.003906 0.707031 0.085668 230 75 64
0.000000 0.707031 0.085279 222 61 51
0.003906 0.707031 0.083693 220 58 46
0.007812 0.707031 0.080601 219 58 43
0.011719 0.707031 0.076775 208 55 39
0.015625 0.707031 0.072128 184 52 36
0.019531 0.707031 0.067897 160 58 41
0.023438 0.707031 0.064957 167 90 68
0.027344 0.707031 0.062783 187 132 107
0.031250 0.707031 0.060707 199 155 126
0.035156 0.707031 0.056796 200 159 125
0.039062 0.707031 0.049552 185 141 105
0.042969 0.707031 0.038755 174 126 95
0.046875 0.707031 0.023514 180 131 101
0.050781 0.707031 -0.014766 142 102 68
0.054688 0.707031 -0.018697 81 54 31
0.058594 0.707031 -0.016909 66 38 21
0.062500 0.707031 -0.012308 62 39 22
0.066406 0.707031 -0.007988 115 85 53
0.070312 0.707031 -0.008074 184 157 113
0.074219 0.707031 -0.012625 166 143 98
0.078125 0.707031 -0.016722 160 137 93
0.082031 0.707031 -0.018159 188 167 131
0.085938 0.707031 -0.016970 211 204 179
0.089844 0.707031 -0.016562 248 247 240
-0.113281 0.703125 -0.005040 240 241 236
-0.109375 0.703125 0.000374 228 227 224
-0.105469 0.703125 0.001885 210 201 195
-0.101562 0.703125 0.004135 209 192 177
-0.097656 0.703125 0.005405 198 178 157
-0.093750 0.703125 0.006613 197 175 149
-0.089844 0.703125 0.007125 190 163 133
-0.085938 0.703125 0.005333 163 130 98
-0.082031 0.703125 0.000699 113 84 62
-0.078125 0.703125 -0.007099 50 34 26
-0.074219 0.703125 -0.014369 31 20 14
-0.070312 0.703125 -0.017108 41 25 20
-0.066406 0.703125 -0.010325 108 68 59
-0.062500 0.703125 0.033476 204 153 127
-0.058594 0.703125 0.045324 230 185 156
-0.054688 0.703125 0.050963 234 188 161
-0.050781 0.703125 0.057577 236 186 161
-0.046875 0.703125 0.062432 236 187 162
-0.042969 0.703125 0.066059 236 189 164
-0.039062 0.703125 0.068746 235 189 163
-0.035156 0.703125 0.071071 235 188 162
-0.031250 0.703125 0.073430 237 190 165
-0.027344 0.703125 0.075646 240 196 174
-0.023438 0.703125 0.078168 242 196 177
-0.019531 0.703125 0.080393 240 178 160
-0.015625 0.703125 0.082173 235 147 130
-0.011719 0.703125 0.083329 230 124 110
-0.007812 0.703125 0.083700 227 110 99
-0.003906 0.703125 0.083775 222 97 86
0.000000 0.703125 0.083522 217 84 74
0.003906 0.703125 0.082164 216 83 71
0.007812 0.703125 0.079304 210 79 64
0.011719 0.703125 0.075740 194 72 56
0.015625 0.703125 0.071462 185 80 61
0.019531 0.703125 0.067571 184 100 76
0.023438 0.703125 0.064455 188 124 96
0.027344 0.703125 0.061804 191 139 112
0.031250 0.703125 0.059647 198 152 124
0.035156 0.703125 0.055497 199 154 122
0.039062 0.703125 0.046885 180 133 100
0.042969 0.703125 0.036987 175 126 97
0.046875 0.703125 0.011586 177 130 99
0.050781 0.703125 -0.018093 123 87 57
0.054688 0.703125 -0.019829 74 47 28
0.058594 0.703125 -0.017923 68 39 22
0.062500 0.703125 -0.014097 60 36 20
0.066406 0.703125 -0.010078 101 71 42
0.070312 0.703125 -0.009318 183 154 109
0.074219 0.703125 -0.013056 175 152 107
0.078125 0.703125 -0.017263 155 131 88
0.082031 0.703125 -0.018804 186 162 125
0.085938 0.703125 -0.017697 211 202 175
0.089844 0.703125 -0.017327 245 244 234
0.093750 0.703125 -0.020013 251 251 247
-0.113281 0.699219 -0.004510 240 241 236
-0.109375 0.699219 0.000300 229 228 224
-0.105469 0.699219 0.001694 212 204 198
-0.101562 0.699219 0.003530 211 195 180
-0.097656 0.699219 0.004315 197 178 156
-0.093750 0.699219 0.004922 196 176 149
-0.089844 0.699219 0.004889 191 165 134
-0.085938 0.699219 0.003348 166 132 99
-0.082031 0.699219 -0.000185 119 90 65
-0.078125 0.699219 -0.005941 51 35 26
-0.074219 0.699219 -0.013050 31 20 14
-0.070312 0.699219 -0.017927 35 20 15
-0.066406 0.699219 -0.020253 68 40 33
-0.062500 0.699219 0.006611 174 119 95
-0.058594 0.699219 0.041754 225 180 150
-0.054688 0.699219 0.047254 229 182 153
-0.050781 0.699219 0.054027 231 178 152
-0.046875 0.699219 0.059623 234 183 159
